# .PCD v0.7 - Point Cloud Data file format
VERSION 0.7
FIELDS x y z
SIZE 4 4 4
TYPE F F F
COUNT 1 1 1
WIDTH 1280
HEIGHT 1
VIEWPOINT 0 0 0 1 0 0 0
POINTS 1280
DATA ascii
-2.348600774 -4.690187841 2.39997236
-3.834332067 -11.10773929 0.2119268073
-1.942073771 -6.72626919 -0.1839468505
-3.77800617 -11.89675937 1.690437028
-5.011740515 -4.681126977 -0.5166725894
2.061177681 2.528123081 0.1472805852
-8.080306698 -10.8865734 1.390023422
-3.832769429 -12.37742908 2.511550476
-5.439138524 -4.334579672 0.007132771463
-5.317103602 -17.37165845 0.009070169443
-6.016272418 -4.496298209 1.007163296
-5.789361507 -17.53335119 0.9185255687
8.412536104 7.976023669 0.9075086595
-5.226546394 -9.881091538 2.326422307
-1.98445364 -6.112220896 2.948524421
-3.242543053 -8.725606406 2.123254649
0.01438744547 -3.512520117 2.009281905
-4.198322491 -12.92611059 1.991124645
5.909240714 10.08249803 6.514849516
-0.3293582971 2.12484797 1.010103391
-3.812032065 -5.509955182 2.301684234
8.152090466 10.9002798 3.294253167
-6.287111382 -11.50622938 1.331555281
5.279617156 6.252459097 4.342809033
15.22626953 19.14000304 3.122686287
-9.21482201 -9.857914589 -0.05096275738
3.482678633 15.15483801 5.814333531
5.528055107 12.87359881 -0.7309576647
11.46859893 10.10383331 0.510127628
4.233502216 13.59959001 8.404592869
3.679187881 4.328593626 2.092728298
-5.824359786 -12.3342439 1.216636579
5.649370121 13.85534332 8.959936367
-2.213094434 -10.10008192 0.613668975
-7.232527239 -7.31744699 -0.2515175691
-5.131723244 -14.5267808 3.544409115
-8.501898555 -10.318863 2.986708272
-2.306181199 -3.925574026 1.385330154
10.50505604 10.06176922 7.688496667
-0.7761126701 -6.249901482 1.535224494
-4.18217117 -5.913001703 3.236792211
2.328081575 12.81543801 6.126797894
-1.054707069 -2.645704983 0.4069146006
-7.006992512 -7.48138464 0.608111906
-2.427260207 -5.484183719 1.394561126
-6.115733215 -5.690760962 0.6069696144
-10.95980646 -13.52462053 -0.551193711
10.05222334 14.03840119 1.539354464
-1.681769616 -0.0879737433 1.612839844
-4.932973154 -9.680308218 1.20927156
3.793815784 5.407064413 3.902345933
-5.105307453 -12.48037828 0.533881647
-9.747676298 -8.566391295 1.61404895
-2.634633758 -11.51581133 0.6325711734
1.593416009 5.646304148 1.415650733
9.841488185 12.26971369 10.72284974
1.908443833 2.561137123 -0.4265256964
-5.706456639 -17.3223907 2.103199254
-5.984488924 -4.71764124 2.129911219
-2.505595632 -4.900836455 1.005472616
6.896468906 6.864417316 4.563534179
-4.872857873 -5.918200817 2.406756423
12.6151757 18.72139032 2.879451261
4.814060034 15.40349015 9.77132643
-3.494154349 -4.675709609 1.807839893
4.059134238 4.768265958 3.719124583
8.85999768 8.911238366 6.146803238
-3.183391939 -9.707122602 2.842897434
-10.74221204 -10.73625727 3.494713365
-3.973795442 -2.546634212 0.8080020205
-3.729775395 -15.70693347 2.472133269
-9.994931287 -9.825542018 0.01915733027
9.558081599 11.55929175 1.559854136
3.009087037 7.130222866 4.496906453
6.965631822 11.27896079 5.830288789
0.4677754264 14.13159117 3.985068463
2.133470081 3.841156229 3.840987077
10.315394 11.44190712 8.765146838
-2.294020828 -2.749125686 1.011749119
-0.3835205397 -1.106760196 2.352129263
10.02103891 12.45704492 -0.8826126297
3.244948234 6.53627867 3.546456378
-7.53169456 -6.933012672 2.104114353
-7.5118593 -5.890403351 2.380239577
-4.199209329 -5.283734437 1.713713754
2.78610785 2.384383586 0.8692478745
8.557590989 11.45333161 5.009756072
6.057059999 9.952995888 6.946697488
1.273133773 2.884859631 2.29352002
10.75234701 14.88569544 1.15346533
-5.281297343 -4.159522999 1.808699935
5.844324689 10.93320686 3.915894933
8.720998377 11.67577397 8.153943909
-2.380589187 -6.960849586 -0.7378532141
0.307381723 -2.145198265 0.4111844349
6.707461696 14.44550514 -0.9967759955
4.526904467 8.539658446 0.6335159715
-3.221547193 -5.46190389 2.409820539
8.286727528 5.355968121 5.421688263
7.811545872 8.724813736 5.808690186
-4.116197165 -8.889146292 0.4158573135
-5.623736627 -5.870129316 -1.236747095
-11.58154314 -11.62015161 1.924623324
6.294217194 9.709588587 0.6817899963
-3.502049125 -5.110382365 1.015078629
-2.092496149 -0.3785538754 0.01643362277
9.227017226 12.29152528 8.85765944
-1.555145372 -4.888048035 0.01109059776
9.737161856 9.326004686 -0.2271304301
-6.78784021 -6.510085598 1.184743782
1.678468344 3.285012706 2.104943607
0.6236590864 3.134403795 0.5285465928
-0.1838847169 -0.57440119 2.137699081
-7.793254043 -6.896303112 2.056879856
4.104684361 6.043727864 3.340486256
-2.308579267 -4.0948036 2.530846959
-2.261910692 -5.108812891 2.528556751
2.419096627 5.285806537 0.8251501195
-5.359224109 -6.904804472 3.388284884
0.6200923413 10.47482663 2.601283027
10.82463923 11.5237329 9.110483818
1.6730157 6.071278094 1.787213518
-6.41851882 -8.332988912 -2.095140001
-5.510279072 -9.122372686 2.374055716
3.259191711 12.81254447 7.62279888
-8.564385992 -8.968014615 -0.1257802427
3.473619563 13.44216083 7.807282556
-0.4778716195 -1.91529167 1.406696954
12.0589531 9.899268394 7.723373358
9.304532157 12.81556367 -0.7185201525
-4.481065626 -10.49983404 1.532356223
8.046959929 13.45546859 9.437179214
-5.90999461 -9.105159214 0.6096171156
0.2639789903 -2.695631842 0.8072123814
-3.821011145 -3.912143134 -0.8044450458
-1.3252376 1.346364608 1.846454721
7.857546989 11.78328743 7.357593481
4.287942998 9.465917075 6.127209135
-2.680425202 -3.31149358 2.018641256
-3.285435314 -3.511030872 2.733561156
-5.875766738 -6.308283045 0.2719044947
6.752233038 8.901390771 6.486205843
7.535288158 11.1284422 7.783524272
2.342211275 1.973177187 0.6814329783
-7.410923798 -6.077895807 0.6158013696
-4.209465936 -6.697557738 1.938220176
-7.947554847 -7.911478249 1.896504681
-6.785185648 -7.291112867 -0.1807312015
-3.341884028 -4.903708664 1.022012714
-5.481443098 -6.030243688 1.411162471
-1.965799124 -3.441844828 2.056737539
3.897186446 7.27595094 0.7057763858
3.644188263 4.522207751 2.878364907
10.82525319 10.59039348 1.026654416
-5.035917126 -8.466724525 2.189488203
-5.794606095 -7.325299684 2.251653612
-0.6877532196 -4.909793185 2.777630186
-5.574941702 -15.90918739 1.359073671
-1.378954346 0.2972484297 1.20989902
14.17154669 10.20983008 10.68795469
2.228829242 9.467771402 7.698352189
-0.584500505 -2.507566608 2.53312934
-4.202578673 -9.860406142 0.1983823378
2.56727415 4.812338573 2.061366574
2.097219962 8.496456378 4.010932691
-4.397003736 -2.905135794 -0.4010866667
-1.907743876 -5.12240194 0.5931369655
8.248262495 7.355345973 0.8622526833
2.1221417 5.007923438 0.304568414
-10.87661221 -13.91345593 -0.6048328769
0.940449733 3.892695938 0.7352234948
4.993496328 5.677472517 3.337516084
-4.5178889 -15.90222657 0.3625996948
-2.886896955 -5.480021611 1.528125045
-6.3879947 -9.92452712 2.208187015
2.681166473 9.279961248 5.216041216
-5.907023914 -6.340949381 2.014409188
-3.094674715 -8.317116196 3.164141541
-2.988743669 -5.350331588 1.9992136
-6.641267828 -7.299085641 0.8468333918
-0.3925900344 -3.660429014 -0.4253463465
-5.298260768 -12.27610907 2.288879049
-3.271210614 -6.174735142 2.079358835
1.661917393 2.296143336 -0.0510122072
15.31122438 19.23294509 2.973650976
-8.957163193 -11.30921 1.523384377
1.057390358 10.72553286 4.307457855
-3.663747273 -3.100420904 0.6010261961
-8.029908704 -9.484294806 2.877448361
-4.542180821 -16.70894414 0.9702023551
-5.117749372 -7.292761876 0.08090996363
1.984863825 9.965592804 5.717270439
-0.4863637716 -3.72453086 0.4051104608
-8.084708099 -10.09258477 0.7663304161
-3.954359466 -13.12225542 3.119738583
-1.695408005 -8.429992037 1.778143955
2.129662363 6.345403048 3.848203168
-5.728209539 -12.30145662 0.6739602583
-6.709831629 -6.919491212 2.530165427
-4.670409006 -12.29123881 2.409141382
0.6175565991 3.140531089 0.3287072155
1.883699446 5.169967411 -0.03692180797
-3.582972157 -13.09058806 3.039425678
-10.76570408 -9.343279835 2.386458537
13.31273766 11.62767042 9.647828945
3.390357412 14.84838489 8.658816058
-1.194678996 -0.3282548894 -0.3135247683
-4.279161947 -6.105664857 1.920250496
13.13293635 17.65196588 -2.217019555
4.635083544 9.791178194 6.197054815
3.49189945 15.34984991 8.719444394
-1.88199382 -6.714906245 2.986247535
10.96811333 14.8444182 3.793033546
-7.483844672 -12.29600961 1.813213147
5.505429487 8.866442938 5.618653085
-0.9751867563 -5.10570167 1.607001574
-1.770361631 -7.683359839 2.704639952
-2.941670758 -4.922531615 0.2154602532
-7.259283447 -6.516014254 1.004875781
-3.419476188 -4.475165377 2.213122513
-7.882991425 -10.92050748 0.840687414
-3.12920176 -1.3695465 1.41238587
-2.950606103 -7.498987343 1.325371394
10.04278274 6.03785836 6.212555341
4.753580071 8.020384802 4.255616596
-2.185104973 -2.709352374 2.772504237
13.0440905 17.80003489 8.517343855
-2.065864147 -9.93812741 0.7667496185
4.077293887 6.307736039 2.925186775
4.479096845 5.661288365 -0.8790217654
-6.289199957 -6.921035387 0.8002361753
-8.02119077 -11.07858453 2.171561847
-4.151807788 -5.666215606 -0.5283406974
-5.606547364 -8.923718167 0.1258615477
-3.377805204 -7.507462133 1.801118423
5.59691969 6.879466625 0.6018474512
-8.109760505 -8.514465692 0.5151274096
5.375442271 13.63596644 7.678704063
-0.7756466567 -5.723780411 1.606683592
-9.04051585 -10.16269603 2.70754914
-8.483096249 -9.500138987 3.200414145
2.420412332 6.073851012 2.18085263
-0.5186383567 -4.701520157 0.118014221
5.442351973 7.222420207 5.236250881
12.28424679 16.62420556 4.715320272
11.60229598 11.58883427 8.659442236
3.914787685 4.218909942 0.3497967536
-1.637589151 -6.553302924 -0.8162876874
2.135325511 3.654153943 0.09351467332
3.488450399 3.718710641 2.417742865
-1.716654959 -3.298916695 0.205561367
-4.47021163 -8.712476533 1.806799733
-2.176485886 -7.325246642 2.328619513
13.2743633 16.49464267 -1.904235499
-4.581709192 -15.29037575 2.636266115
3.21704676 5.8011192 2.291422392
-5.567632695 -12.12022847 1.820934768
-0.6288135738 1.462830978 1.514765769
3.603246234 13.39299054 5.739398597
6.522666308 11.99113475 8.40289198
11.33643397 15.34697405 7.430541466
-3.217436441 -2.909118494 -0.7558245235
-6.597262332 -9.297721384 1.069636172
-8.916863005 -10.91398946 3.620648858
-4.004206257 -5.0906201 0.9999307624
10.55376602 11.12449817 8.918102134
8.423969058 10.95302015 7.821464784
-5.364000945 -5.723242556 1.408348405
-8.105684022 -12.11916711 2.334497041
2.389794036 5.497748573 2.32988197
-4.153887636 -14.69231452 3.075761225
-8.56220962 -10.89675772 0.5222488783
-5.815576293 -6.903118355 3.439849577
-6.596643139 -10.10447401 -0.2060540876
3.116631067 7.049847939 -0.463405652
5.632101052 13.30441913 -0.8910425317
-3.453170837 -14.56704521 1.979768166
10.70714401 12.85850351 7.848795968
0.6456932324 10.95321103 3.185389849
-0.5876865453 -3.484187957 2.357676586
-2.772989683 -7.121726774 0.6149955589
-9.505084274 -11.9348864 2.216666671
-8.785846428 -8.514634691 -0.09838909752
-2.628150309 -11.24200661 2.772760119
4.588368045 5.605742494 0.6298673675
-3.478893081 -2.914929209 2.746911883
-6.002063152 -8.090831301 2.94328876
12.46191673 16.63368899 7.164757689
-5.480987064 -7.122529667 1.347102409
1.315088287 6.328168226 1.68956585
-9.516496155 -11.91094618 2.385033546
2.340058159 13.2572252 11.24648239
13.65900392 9.099168988 9.212714932
-4.327306732 -6.697050832 0.3946021113
-4.939752229 -7.286288531 0.2206704574
1.611588695 6.161677738 0.9523141114
-6.78029057 -8.71511852 3.632982352
8.908124966 8.085997057 -0.2575258398
4.640217644 8.076760118 4.907318929
1.594156541 3.304216447 0.1537525207
2.281687284 6.391434731 3.828968271
-8.759348794 -9.702265831 0.8124543059
-0.2850243647 -2.507139622 2.527516836
-3.937137819 -9.111585026 2.923802495
10.73872803 13.09685353 1.74579987
-1.155418946 -5.119638847 1.606611671
1.817522447 3.774358894 1.321025992
4.444829233 7.882792934 4.305169681
-2.866751267 -6.083401193 -0.2539925263
3.868773806 4.923240679 3.267620563
-5.044325313 -15.80272795 1.987877392
1.896370324 8.678340842 4.455512931
0.07637427671 -1.906682761 2.008126669
-3.383771207 -7.28247061 1.421103017
-3.214671397 -4.081224869 0.2256760574
-2.697388911 -5.70569492 2.37616944
-3.163582035 -6.721584267 2.010060746
2.149671773 9.474604807 5.482224728
4.987604586 11.70012072 6.411249117
-3.770736595 -9.872923546 2.941080141
-4.452386968 -4.314435478 2.512047319
-5.174510431 -8.303374798 2.662510066
-6.027905118 -6.716921436 -0.1855482641
4.083190766 7.863516324 4.232066
-8.994095036 -12.71238558 0.2025550889
-1.334117678 -1.306400124 2.511367609
6.823021114 10.16065836 6.966293588
0.2550713148 -0.858809992 0.5870115627
-6.150963879 -11.76093651 2.728208621
-6.523282515 -5.069327667 1.529256092
-0.085842114 -2.707644482 2.412956622
1.19472826 3.33619632 0.5746360137
-3.781497164 -3.310038129 2.450525286
-4.635262485 -3.935133322 2.601095588
-2.518004717 -8.325996337 2.343682855
-3.969093346 -14.94029658 3.135275431
-3.637063232 -13.86937926 2.263361544
7.856634213 7.098581906 0.7687951146
3.865013957 12.22101858 6.704186804
3.842618819 5.927582882 3.928272472
-4.283403167 -6.497789002 2.605487045
-2.087913653 -4.510406451 2.78656253
4.518303194 9.256821817 -0.501880042
-4.038533614 -2.897566029 0.8137999717
1.785100124 7.550518751 2.233779353
2.037044302 5.210667181 0.6308972777
-1.745699733 -4.698540367 2.331717089
3.759067608 15.5685076 -0.09125697982
-5.183685501 -14.73958097 1.607335785
-5.025835568 -9.523019905 2.327870312
3.169564955 7.667783759 4.453897452
12.97187083 17.23715113 6.185341989
-4.497681534 -6.268094641 0.578975472
-5.68281126 -6.04787627 1.943167064
-6.10007526 -6.091160773 1.997708488
-10.66230622 -12.56583248 1.022862494
11.41330877 10.82241945 0.06873591618
-0.9080648563 -6.297247387 2.815674192
3.690070178 5.107962413 3.32534765
-4.794893315 -4.129632883 1.209450925
-5.001102884 -3.734403291 1.214148278
2.123783962 4.072422626 -0.3134608022
-10.06529828 -8.490603383 2.594009674
3.672209802 6.457196956 0.1549594883
12.32735232 15.49375233 -1.883228574
-3.426791504 -11.97176471 -0.7849133695
-1.306737861 -3.455277046 0.3401315404
-10.1144009 -9.116084672 1.962838884
-3.969612692 -9.509871699 3.186403428
9.309762719 12.64209308 10.92229404
3.01821045 8.296888992 4.588467059
-6.987789115 -10.50967998 0.9988939304
8.902575548 14.27776912 9.761399791
9.712503221 12.6448934 10.6734611
-7.885293557 -6.538637027 1.800900457
-4.169403488 -12.7015068 1.984548517
11.13310161 14.30716346 -1.847148411
-10.50428102 -10.85088944 3.386190029
-3.979525235 -5.514599681 3.194584918
4.683626051 17.48310563 -0.009246517237
11.55388051 12.04535226 9.183719221
13.2353961 9.679948251 10.41845355
-4.088560699 -14.4810853 3.074061453
-5.833797208 -11.02653664 1.626360815
4.545320742 16.94203491 -0.08525933052
-4.34597583 -6.31194034 -0.0708668254
-4.055632968 -13.36222877 2.016155822
-3.363483465 -2.348367085 1.209893891
0.337287238 -1.233893519 0.4121385076
-2.04313961 -5.337115387 0.4208268586
3.832863794 12.59867911 7.77257692
-1.987854702 -0.505182554 1.80972989
13.10352949 17.88655138 5.323841655
3.877850311 9.421648808 5.911034426
7.424061356 7.568267325 5.472056822
2.950688854 2.726769682 0.2095524173
4.460931539 9.396951818 6.342396866
8.299518987 8.489321883 6.173661657
-3.417474738 -5.71770827 0.4010602273
-2.39375426 -6.303801082 2.575025513
12.15930884 16.4067701 4.08621133
-2.389619116 -4.67346838 -0.47031784
-0.02275192321 -2.90817759 2.011260416
-8.416258192 -8.301891132 2.204704546
-3.150683074 -12.71013313 0.1237387045
-2.997875219 -2.526724921 0.1321396607
5.666901884 10.0825018 5.880042981
8.926215682 11.01392255 -0.4729377109
7.606602819 10.00324877 4.384566095
2.700273235 3.270877701 -0.2000135808
-1.406436966 -0.9049940347 1.609454474
1.926261269 11.11730739 5.618951981
-3.857689262 -3.948321079 1.807361077
10.21947207 9.66593484 7.417887109
-1.345507223 -3.284713917 -0.000594449831
-7.909336712 -10.31517878 1.7329148
10.09218358 11.08374852 8.073794524
6.736569763 8.925051702 4.073634292
-2.852560917 -8.11346242 -0.1507712042
1.493234523 3.59014117 2.602598104
-9.381180267 -9.16351601 0.5936560349
-0.6004973482 1.295217744 1.895726753
-1.78167865 -3.106979318 2.46706969
-4.965615536 -12.91752092 3.381878983
-3.320191521 -10.87772137 1.36871731
-3.999104115 -14.11821241 1.835773384
-5.196777641 -14.08915581 2.002841108
-5.090005998 -3.517175727 -0.1982476509
-4.782670656 -16.98371721 -0.2317756718
-3.224200814 -3.86675945 0.81379389
0.3675008516 3.450965778 1.027978978
5.239908289 6.341806373 4.878432085
-8.115031896 -8.297306971 1.18014655
-4.720628092 -9.136271248 1.60492743
-1.258713379 -7.198903248 1.131130731
1.65726368 4.305224901 0.5843559845
-4.743783226 -15.28159426 1.470255737
-2.386812835 -4.677397352 2.782328817
10.0079762 10.11322943 7.651042453
-3.37479654 -4.703596655 0.3089934495
3.722941848 4.742331702 1.58705368
-9.393339521 -10.69160777 1.212819079
-1.916914298 -7.537061255 1.787689608
-6.293553688 -7.119062781 2.294508819
-3.168543511 -12.27209643 0.7835563226
-5.183545155 -7.503090556 2.388191006
-6.55760149 -12.81970639 1.104215669
-2.010341713 -1.703019821 2.541013568
0.8142807271 3.336468706 1.526680486
-1.382124879 -4.919811775 -0.5086867873
-9.374357208 -11.10960255 1.079544574
1.010107307 3.345013532 0.9643287104
-3.103463593 -11.89790675 -0.001152387641
-5.461966557 -10.96829216 2.981553768
6.0005903 6.166145641 4.060148882
-1.587271028 -7.906318248 0.8076967503
-2.14749463 -2.51254498 1.209289248
3.626692775 5.690563421 3.280485461
5.745529794 6.370886368 3.334268513
-2.087665762 -2.71039235 2.043283389
-4.325793319 -13.68923088 1.831960018
-0.8149328542 -5.896837315 2.842146201
-3.586782038 -11.52207021 3.024648802
5.111627494 8.133449297 4.254214356
5.056451472 16.23849067 10.39335394
-1.088528149 -1.311740572 -0.1559059631
-5.58901638 -7.106590432 0.5181824658
5.024208283 5.319605003 3.392683689
3.270161775 4.1545506 0.7035329449
-4.463646619 -16.35523483 2.152355535
-4.792211174 -3.322353664 2.129675552
-6.155072708 -6.543977032 -0.9974289903
6.297918367 11.04357817 7.64089986
3.919218971 4.163432379 1.366276265
-6.697518983 -9.715136408 3.442443668
7.864485941 9.261046321 5.58365212
3.751638215 6.255767294 1.718908961
5.21016025 6.803794098 4.945406009
-6.097075659 -4.560782813 1.318563923
-7.70456681 -11.89640291 2.638078853
7.325760077 10.21381265 1.214657645
3.007131987 4.120591213 0.5333259727
4.211890035 5.485811856 2.993931692
13.00425028 11.97554777 9.328759447
0.9119530341 3.436127243 1.208797782
4.939948685 6.205593609 -0.9986459364
-7.430743848 -10.90950402 2.925967538
-2.860740477 -9.691621377 0.2063426403
2.438425337 3.651330055 2.735484782
2.465419678 3.63876872 0.9710012231
-1.746226286 -8.570201865 1.200484104
-3.77600953 -12.50504437 3.575067214
2.892861424 6.185612872 2.470474682
-8.577725221 -10.92454508 1.58009355
-4.378482592 -3.925943462 -1.075698025
-2.557921319 -11.11445278 0.1147363128
2.10618067 4.704983812 1.802544195
3.58911437 9.079969495 5.335047277
15.01393383 19.03768255 2.886139252
4.08688309 13.13356923 6.534683937
5.757563981 14.82401488 8.468118793
-0.9643126389 -6.379450898 1.805254561
-1.273206873 -7.508768168 0.6027756361
-0.05309217959 -3.87404845 2.010992233
-5.106622428 -6.900886909 1.617830575
-10.96649433 -10.09531869 0.8233268707
2.476128149 8.72370272 6.071066483
2.108697928 12.69941699 10.02192954
-3.002041129 -1.886643669 1.207700701
-4.824327197 -10.91526729 0.9792301854
-8.760766444 -7.485905596 3.099797224
3.897418729 5.242335647 3.572387534
2.835401673 5.644164198 2.858763765
-6.945152975 -10.55918015 -0.5984595227
-1.199834833 -7.66560121 2.012543611
-3.388033798 -8.101584995 2.774984041
8.585722163 10.0656996 6.222988731
-3.307274105 -6.131024516 0.7128472033
4.235269092 11.52091748 -0.4235772672
-2.01462887 -7.742735915 0.8064165131
-10.19862397 -8.70615592 3.005847394
-8.884759327 -9.899262536 3.200001643
3.372694421 7.61456981 3.035785825
-1.405760485 -7.110294747 0.4402652737
8.637482134 11.86627433 6.958408012
1.610841472 5.49032056 1.49016747
4.087921938 14.07990654 8.024598591
-7.335229494 -10.30026326 2.125718642
2.656959325 2.957506385 0.4789357591
3.400756621 15.6895101 0.5824349389
3.713470712 3.436900848 0.5210933972
2.80885012 2.36312968 1.12809848
-7.485823747 -5.879984082 2.60000114
-4.200665653 -5.292467779 2.823549637
2.463738673 13.69913201 11.68145927
-3.824745402 -11.87502598 1.443947218
-2.954536922 -3.935569764 0.9953883885
-5.49109033 -6.33074065 0.1460665403
-3.291887313 -6.113101126 1.521972223
1.688880695 2.238047552 0.1185218722
-5.912973827 -8.25409571 1.423490216
6.527048948 7.109878014 4.915582741
-2.259890976 -10.96004013 2.159692183
-3.450614679 -7.300745385 1.104599946
-1.020245988 -6.878949503 2.005454791
6.902857991 7.509516041 5.28248275
14.06493371 17.16364294 1.337140895
2.99215205 6.637214966 0.4393220454
-2.115979765 -6.550259406 -0.7802125417
-3.45446245 -8.31703831 -0.003807586621
6.03030737 7.619313959 5.176217694
-4.24879392 -10.11472274 1.366759076
-2.804359582 -3.085517087 1.009911307
6.047672374 13.02892323 7.695946302
3.111192232 3.300308681 1.942773628
-4.748985905 -5.505836818 -0.4190766749
-6.532513728 -6.121688759 -0.2830627716
0.1247789615 -1.617046184 -0.2730843592
-3.2269575 -4.309325974 2.608468398
-6.979866493 -6.10847466 -0.2232492254
14.30367342 10.04167694 10.32720434
1.903757231 4.107045815 2.506639561
-5.391324011 -6.110582445 2.758969483
-2.106503313 -6.46163555 2.36687014
1.877958225 4.096487197 0.4823949072
1.970552044 12.57206412 10.56096819
10.90046696 13.91593582 -1.732801201
-1.40549513 -1.509066555 2.197859978
0.3157076814 -1.065253507 1.409945747
-2.107115685 -1.683353712 1.808047938
3.535924652 14.51228301 8.658096751
-3.487361607 -4.3162604 2.812457238
-5.715853916 -5.104590332 -0.4672509123
-7.754314842 -10.95450363 2.519996291
11.18799133 11.75703648 1.220145562
-8.413140701 -7.301920039 0.5838746154
-1.504932497 -5.937992602 1.802709606
6.121360001 5.902328307 0.8572692078
-2.09597959 -0.6694713999 1.930157277
-3.686963205 -7.477708351 2.004526285
1.507434814 4.676321877 1.861188678
8.900275304 9.483463235 7.241342663
-7.001799598 -7.497838884 0.4208960837
6.7431105 12.26458621 7.638683575
-4.861309996 -8.116155813 0.9973501489
-6.391157751 -7.704175591 0.2738167212
-1.235013333 0.7969116458 1.515189782
-5.655260057 -15.50337736 1.57557196
16.65075134 11.34735139 11.44178234
12.0471324 11.70331658 8.914268517
4.537410101 13.06622767 7.062020575
-1.117268495 -3.109723952 -0.4507540576
0.1715504682 -3.082492141 0.8146780371
-2.585748768 -7.469202342 1.019356399
-1.046706586 -4.702970267 2.211424136
3.682604139 12.11783859 7.615762421
9.401495535 13.44441966 8.451018689
0.1557205326 2.693168114 0.6090001031
4.320211828 11.44426486 2.95661609
-1.779712277 -5.48687952 0.4210055474
4.405624638 5.20801221 2.591424978
-5.929963625 -4.89658594 1.001091978
-5.771275761 -17.96694657 0.9196675561
-4.919008417 -16.58962596 -0.6678132502
16.91847937 11.26908274 11.19218051
-2.129188778 -0.2711384331 0.6057094351
3.004532825 6.274034799 2.581559232
5.788586829 7.318102118 3.466674047
1.502927162 3.760049471 2.045321144
-6.891275086 -10.52681249 1.986866136
-5.424748865 -14.7028767 1.219824998
4.670273954 11.60991533 7.966478842
-2.118802737 -5.518236716 2.211074805
2.879371664 8.225837563 5.573571629
1.885554318 2.718351907 2.10843962
-1.983573366 -3.309823425 2.479325717
-1.845630651 -6.108287807 2.199046691
-1.893794451 -8.109040399 -0.2449727317
3.631822864 10.62504333 5.397183564
8.867430062 11.82917358 1.008940361
-3.110821351 -3.518872991 2.357751251
3.148827816 13.97551141 8.825325138
-5.201952024 -16.94391587 1.836373575
-1.205181462 0.6505930149 2.350589406
-2.998837995 -12.88587877 1.316487729
-4.810996674 -6.71760671 2.848664172
-6.582000549 -4.890075388 1.999389724
-2.946194106 -6.708759805 2.355345373
-0.6921668722 -3.307970747 0.01710236445
11.21736544 15.20056587 3.970117238
12.21554225 10.13485919 7.772717659
2.629547846 8.169160398 0.1546966089
3.770876755 9.257269224 -0.2786743933
-0.8459304424 -4.319205794 0.2045721335
10.88592417 9.613277617 0.9471115323
2.675936416 2.905559954 0.00771075557
-7.665790628 -9.070293165 2.166461534
-2.818083054 -7.99034749 1.442988681
-2.845225487 -11.6824191 1.624291652
2.352678445 2.858059453 0.1771513507
9.387772282 14.99401846 2.862810228
-6.528633638 -8.897610314 2.313688122
4.032042538 12.27347389 6.898774776
9.165713083 9.211460984 6.520565437
-8.858698672 -10.26715542 0.8460201579
-4.3891188 -11.71741752 -0.360303722
3.500736158 10.06999379 6.588764682
0.7364097228 3.245343968 1.122303866
-10.22896796 -8.869216241 2.160216093
5.314347272 8.456642368 5.640096092
-2.200023785 -3.308526122 -0.3779518031
5.748924848 8.044972851 5.696176233
-5.827182388 -16.77277787 -0.4537378455
-2.407590889 -6.480195408 2.603789607
-2.540863037 -1.910046806 2.095083351
4.406315375 10.30760634 6.004376874
0.09447588011 2.605252142 0.2103974372
1.929994562 4.283840714 1.577931027
-7.880113456 -10.7173359 3.661216972
3.757493244 4.6861166 -0.6175857939
-8.280677613 -7.126909716 0.6082603904
9.548375856 8.956823177 6.881347415
-3.054472331 -5.708674619 1.210047938
5.772973937 9.972595868 5.948477588
3.271065047 8.284834808 5.324944251
-0.5992718433 1.562401642 1.390399094
-0.9157159155 -2.299571642 0.4065033947
-1.886222208 -4.509278743 2.771569572
-6.426799698 -7.490525104 1.677513292
-4.388236019 -11.71379952 3.332101013
1.252349398 3.889367254 1.723888162
-2.465112672 -10.90313661 1.994947686
-7.628993879 -6.936259678 0.5967525812
9.500739917 12.51411107 1.496314284
-3.556481395 -11.55110588 0.9172646419
-10.07385016 -9.47164877 3.38608473
-0.3102173287 -2.431114094 2.172610899
-3.969378625 -9.10158094 2.611768021
-5.142398484 -12.73803499 2.140416931
-4.289361284 -4.498526175 3.096638641
-2.803362782 -4.905988313 2.419694387
3.520519728 9.153181045 6.069858897
12.57400991 17.5638926 2.041392914
-1.787916587 -4.884948644 1.206555476
2.054813322 4.287791456 0.4913750767
3.201077536 2.556002573 1.330379408
-6.391188768 -6.723833022 1.649892944
-4.321497518 -13.52923934 -0.5601426681
-2.122047996 -1.104660528 -0.4916510528
-3.30470663 -10.89792363 2.559228625
-5.427621533 -15.93318773 0.9791128044
-2.493277388 -8.522468454 0.8321120853
12.52829394 15.81943147 1.255891606
-3.625037099 -14.71115359 2.979587445
-2.483925484 -10.67364444 2.893406294
-5.45174667 -12.13641448 0.8882824046
-0.1502398572 2.260490871 0.6076248898
6.279959776 5.864652935 0.9580775927
-10.39424805 -8.897333404 2.528617516
-3.18382547 -7.981994486 -0.5139442202
-4.332045724 -6.079510821 0.2218185952
3.633182556 8.287240145 -0.5395876641
-10.33646212 -13.32839476 1.314427462
-0.8950006751 -3.692596115 -0.2675143868
2.19830891 5.376871494 4.869698529
-3.535862024 -11.53174344 1.384059046
4.078373593 7.465239176 4.125614218
-5.418871556 -14.74996792 0.3811809371
-4.094497698 -14.15760172 3.607157681
2.483918611 4.501032611 2.117458598
2.098018987 8.07299556 5.317148355
8.189121477 13.56249299 9.329649232
4.824829159 5.746051116 2.207784786
10.63201849 10.08942499 8.322965692
-1.682830778 -0.9086210556 2.467101932
2.463124765 7.920330793 5.505633388
-8.035382298 -10.27735524 -1.251000054
-2.055257904 -8.321739875 1.895710047
-1.871538424 -6.647310493 0.5938210579
5.287944006 8.53033622 5.884625257
5.651459848 8.077079593 4.694927442
6.55853757 7.294441132 5.732912529
0.6992511199 2.960647242 1.650831086
2.868315825 6.933924003 4.877930378
-5.5814298 -5.919754887 3.28055088
-2.562841877 -9.113509638 1.523208748
-1.338512713 -5.334106517 -0.2040693977
-4.86393142 -4.880234373 1.602453234
2.237969171 6.169073788 3.645052524
6.107795914 9.068324051 5.71791753
1.879502814 8.078420213 5.146574601
1.907390654 7.170312465 4.111602015
-0.3538035006 -3.692955757 2.008402725
4.217675696 12.68696634 7.014629868
4.389229632 7.138001654 5.055131025
3.70348728 9.672659445 6.657580958
5.593510211 6.508998386 -0.07458538043
4.629828391 4.428835978 0.9111183613
11.5327045 11.33525603 8.165689509
-1.547575177 -3.669550984 0.6013624605
-0.3487040512 -4.301700523 0.2079704729
-5.494290286 -3.915690613 0.6059120531
7.824028613 10.4838409 4.8450323
4.661712938 8.923035652 5.890102521
11.45345898 8.396711794 8.990904339
3.723953271 4.103636231 0.0331118345
12.7229256 17.03276429 -1.971871072
0.01326840187 -3.31692517 0.4070365529
4.249593099 11.89109557 7.206499724
-6.768490479 -8.074776007 3.549542083
10.17280448 9.082501981 -0.3770184413
2.72724641 6.361893134 3.858654928
9.32719655 9.646287103 8.007248584
1.414134329 3.652531189 0.7172777918
1.424471218 12.1718769 4.643152274
-3.563590256 -2.728380154 1.972156167
4.773783819 8.212388734 4.903571283
5.643517009 7.492505273 5.49312443
-2.122212849 -2.324878596 1.006806527
-2.077236282 -1.112664425 0.6085058813
-0.2565324467 -2.238441581 -0.2834334611
9.525097441 12.73631753 6.177426639
-1.55337824 1.464657035 2.314273902
-2.013943128 -7.933651987 1.904993068
-1.441423707 -7.130147281 0.1235642465
-5.221125365 -13.8955254 1.195020744
12.89370997 11.85387806 9.343082045
-5.437804168 -4.310452774 1.410161418
7.147293158 11.69110379 7.463814634
-5.812865419 -9.67643346 1.0206082
-2.183470329 -6.168948806 -0.7189702681
4.61289111 11.70164177 8.120960583
-8.55578364 -8.428169403 3.350238564
-1.519224101 -5.718058746 0.1219300121
-8.037693149 -8.092209919 1.408823783
-7.775422485 -8.715024715 -1.046760887
-4.594206704 -14.72693036 1.339900664
1.373166746 7.210420031 1.904815608
-3.022724463 -12.33594264 1.998594813
10.91476501 12.1507729 8.771275326
4.69102296 12.91762793 -0.6229246357
-5.74462475 -9.293310955 2.692475125
-3.707116224 -13.15222683 3.560805587
-5.086109077 -4.127201962 -0.5149034979
10.41934405 12.90151419 9.519187535
-4.796675451 -5.55998291 2.718878304
3.476352964 4.103954985 2.746314279
6.214070093 9.046891464 3.849149029
-4.797376351 -15.88588768 1.627734292
-4.552735969 -9.50372159 2.332140371
5.339331965 9.068123222 6.837365494
-3.064037993 -7.713852113 -0.04397634843
7.736637519 14.84139938 -0.4396448404
-4.603327329 -3.662383532 0.8089070149
3.659160224 8.104318998 0.2971014122
-4.970737496 -7.359457246 0.9300964356
-2.171458696 -6.18240914 1.809495032
-2.384323919 -1.707203006 2.391902813
-2.609053549 -2.708673616 2.235060521
-5.540411611 -13.28388478 3.001054498
-1.356468359 -0.5114741947 -0.04865729272
2.910125284 5.239215445 2.100500318
14.43817874 9.9095498 10.06897528
8.726015757 14.69140031 10.31075492
-1.385489094 -4.314031893 2.776469216
2.363991097 10.84442263 0.5780047509
-6.75885298 -7.321925808 1.591596157
-2.398914246 -11.27864571 2.839919615
7.813056975 12.85402205 8.788277781
2.517085114 2.956547123 2.031851329
-7.543441139 -11.91295876 2.147554881
-4.126936882 -15.56282313 -0.5976689804
-0.6832700825 -2.700439283 -0.3759450305
1.69054882 8.070841205 1.976329958
-3.552365001 -6.052570723 0.08560420217
9.655792951 12.85304199 4.478811529
-3.51539178 -11.10635294 2.936786813
8.421588284 8.546024828 5.909432181
1.56745947 10.39059409 5.303003469
1.448842126 4.447948183 2.53656264
-7.034359833 -10.75251187 2.225789951
12.24161077 16.80787522 7.135125894
5.425140707 8.12234343 0.5448571242
2.470749201 9.468327557 6.560783323
-7.197798254 -8.327125979 3.022733694
14.02274208 19.43882352 2.66445536
-6.15364369 -4.676217666 0.2069433007
-2.426478407 -4.463455995 0.9805677511
-2.364914609 0.9766716313 1.541016611
-2.282215281 -1.497687024 0.4078756789
-4.80339814 -4.134795788 1.40633883
-5.005609873 -3.741713596 1.403151438
7.658111476 6.913025433 4.773021077
-3.053174625 -3.700578301 1.216053268
-7.038625543 -12.84788561 1.363375754
-2.312197027 -3.906405155 -0.2702236487
14.1892709 19.54586088 5.674388455
-8.394258417 -7.494542408 2.036050278
-5.764072466 -17.1745071 1.280850116
-6.381961336 -9.700976972 0.6019197503
-3.19319149 -10.14365651 2.405569886
6.413918827 7.794279635 5.367855403
4.100027079 3.70523931 1.313582974
-7.084349875 -8.89725947 2.297116329
2.475076395 7.682103141 5.319725621
5.315668476 6.71187857 4.306336952
-9.514087782 -8.446626591 1.595492724
3.436633852 13.32175518 6.521574282
-1.955974491 -4.726428903 0.8196334276
18.00898398 14.13009143 1.947277776
4.203223845 9.581440644 4.128638691
-1.209871593 -0.3220201923 0.6096685894
-5.291045248 -16.35469942 1.518491336
-3.785329038 -7.497911971 2.376603755
-5.432957067 -15.08665286 -0.2139446118
13.60190343 11.38517415 8.468461203
-9.764988029 -9.084007459 -0.03823614139
3.93756389 7.89251585 -0.4008293662
13.26615735 11.52039136 0.1466019367
7.380815424 10.98950509 0.3890441289
5.871905562 8.800172656 0.4838282793
-7.295472835 -13.04371462 1.543232301
-0.06476636136 -0.3987721949 2.320010634
-1.609665516 -8.456757056 0.03492802809
-4.062975126 -7.381999859 1.210250131
-6.022828173 -4.504782337 0.8078559359
3.373789234 10.43285721 7.010321801
-3.30306472 -13.6922861 2.202437403
11.71952334 14.38120095 0.795424584
-4.198274397 -9.507036512 2.851769547
-6.718879222 -5.319336545 -0.07263064956
-7.322617582 -11.89913212 1.702247417
2.470879251 5.849766157 3.527303123
4.899303787 14.52236876 8.241365065
-2.891852855 -10.34724049 3.353720074
-7.145456063 -5.540007315 1.625046695
-4.577378373 -10.71143985 2.020900527
12.94899133 9.192614239 9.529376016
-5.110859609 -16.15352756 -0.5854779379
5.864490683 8.704135691 6.362018844
2.995793837 10.41358675 5.570537685
2.017056661 6.489640581 0.7445184128
12.411229 9.962119013 8.347169063
6.78383822 14.52611538 -1.366968178
0.7293635233 5.400590654 2.17070315
-3.319674853 -3.900949852 0.1232378131
0.3601156583 3.473533663 1.323794774
-3.591541271 -6.877460536 0.3441912225
4.501544809 4.045108224 0.3424292033
-10.39927214 -12.12576109 0.1243792746
3.238588646 12.32217422 1.010120933
-1.267084481 0.7058193325 0.08637639432
-4.578419725 -6.524579596 2.615967545
-3.724510866 -2.478224588 1.811274127
-3.61171476 -14.73212786 1.780856757
-1.109903063 -2.506608402 1.60810069
2.906706723 13.9368477 0.4523647142
10.30353121 9.274067698 7.096696923
12.45049624 16.92110868 4.354385494
6.411634766 8.490601013 3.907665406
5.392631557 13.10491417 9.019822153
-9.173499704 -8.481996152 1.958742753
-1.568556042 -1.068645907 0.4087008413
5.991533618 12.75297643 -0.8802418656
-10.32649481 -11.28128742 2.022916541
-11.11519552 -10.2838467 0.8125274807
-5.094011058 -14.5421943 2.200703013
3.696231808 5.469785857 3.373743179
-2.08475089 -3.130576032 -0.6516451607
-1.921056731 -1.924751872 1.809004673
2.322648102 8.30521422 4.903316714
5.367943983 13.0087447 6.946145476
5.127210205 9.450354454 5.043296511
-11.00023872 -9.533416705 2.55347171
12.52112697 11.39764061 9.555941196
-1.928501953 1.638946282 1.399043889
3.875743427 3.229077498 0.6343047551
-9.758657628 -9.579827702 0.7552015341
-1.582642806 -2.909387037 2.452403915
-3.629748619 -11.34551482 -0.5781534958
10.73946173 12.75360209 8.517911578
-6.723662455 -12.52415158 2.281099585
12.88233464 15.76431144 1.106829119
-4.343511523 -8.723574367 2.910494567
4.115465808 3.219939799 0.4682991052
-2.143173058 -7.132964686 0.1991810464
-6.820188611 -7.661776873 1.771402377
3.926060023 8.868023775 -0.2029890527
-4.151539493 -13.51345481 1.920661746
13.98848741 17.7908219 -1.384901351
13.04068909 9.453167154 9.936356448
-5.109176404 -8.495204818 0.7899835201
-6.092694097 -8.922829246 -1.950149032
-5.639761323 -9.510033004 2.772075496
3.434512647 13.2015304 8.04243823
-3.08666979 -5.306935473 0.5936269514
-1.658469298 -3.431503148 0.1647392852
5.979092258 15.52512243 8.261269543
-5.252183915 -11.69508697 1.942103823
-5.684778078 -6.320206674 1.784768922
-5.183600817 -10.6787628 0.3971957778
-4.904779694 -7.918683899 0.09937433365
6.366868844 7.48168002 5.258422105
12.60178995 9.136395313 9.562310291
11.754761 16.13039127 6.88563929
-5.508120633 -4.738174682 -0.5091456737
3.020480433 4.146252982 2.888981764
-4.359314996 -7.820724065 1.001697816
4.521948219 11.30397467 2.97045427
-2.41383365 -7.859449489 1.381039189
9.365774214 10.80816713 8.523524279
-4.232319296 -10.55256483 1.410834789
-5.498138458 -10.29726713 0.9635018865
5.671352482 5.522654991 0.6669796536
-11.18155677 -13.90833701 1.011000483
3.694207841 4.082775716 2.362295515
3.444126538 6.16874259 3.625871417
-5.076531345 -13.29298598 0.387725596
-1.960926595 -7.69717606 1.900853727
-8.802288693 -8.105789808 2.012218045
1.670631992 8.352810703 2.495634667
-2.882059964 -6.103041072 2.307714923
-4.015887212 -13.47086885 2.366872415
1.271648266 3.50956791 0.688250644
3.26955922 8.423186252 3.46529097
-1.199697163 -3.895845406 0.8198095265
6.276764243 10.27322056 6.484115271
-8.787817396 -12.70290321 0.4182104027
5.28489103 12.9060805 9.301827261
10.92056455 8.880488986 6.898148991
4.993421467 12.75217399 7.596275748
-4.524499145 -11.10242225 1.400530554
-3.682665393 -13.05663393 2.293793707
-1.666756529 -4.707887951 0.4041051001
-5.967670394 -7.671852656 1.010118784
-3.133611785 -13.29690161 1.408424832
1.760070675 7.206995163 3.973764675
-6.100001936 -8.911706304 2.594939376
-5.287240815 -4.313673747 0.4586424496
2.72100645 4.058429753 1.465884647
-1.770795361 -3.137932933 0.599668414
-7.54674174 -9.332906079 3.733712396
-4.16205105 -9.713651153 2.075010139
-4.011560926 -11.30192462 1.178721792
13.34193768 17.73609526 6.322745637
5.186027668 15.37594494 8.484855073
-2.164032112 -4.497524722 2.590830494
-4.368584576 -6.481918661 2.362220897
2.6636963 12.34536695 11.61004131
0.3124485236 -0.7855843105 1.944223757
-2.106485736 -4.320334223 1.604924847
-3.755804184 -6.490638839 1.399996567
-6.730744947 -5.299260122 1.600694102
7.567887751 10.40747663 1.413684219
3.093127384 4.294482816 2.52475113
-2.691334254 -11.47092419 3.216088718
-5.314924068 -4.684268516 0.1923506184
2.224509655 6.287858389 5.603328222
-3.821622445 -9.152633909 1.414778829
-5.067100279 -12.68009622 3.247723818
4.054247239 4.567492847 2.797451986
5.097179128 6.062863865 4.183468991
-0.06655488807 -1.832934093 1.007293425
10.35575835 8.604748859 6.340342615
-6.476707712 -10.90101269 0.7954724185
5.42589317 10.34046476 5.5872433
-5.016684901 -17.53634971 -0.3900632705
-5.212679806 -4.899953969 -0.5298923566
-5.280463248 -5.906615647 0.592169118
-4.321619874 -2.679840314 0.2094018976
-8.006419532 -8.880933475 -0.8029539602
-5.452246413 -12.27029273 1.421537735
0.7018808271 -1.104274785 1.008430627
-1.467667961 -3.709571283 2.541186767
0.9424479245 3.545158194 2.069875275
7.97320483 9.393601 0.03638233088
-5.869281837 -11.12467499 3.02115645
2.991120325 2.77580906 1.276538293
-3.401305219 -8.376237551 -0.4904032369
3.863718164 8.506659984 -0.4547543685
14.05072603 9.240364461 9.392253592
-1.636104941 -8.056149712 0.9412577992
-1.651329354 -1.304662029 1.607643223
-4.934080964 -10.31921737 1.990591921
-3.523373244 -1.792867582 1.407902594
10.79041253 13.54894387 0.3228250629
1.3950937 3.342973803 -0.1755703895
2.794723824 1.960832338 0.9288452698
6.844816326 8.048709449 6.113519237
10.75653791 10.12445935 7.84986263
2.951456178 5.199952527 0.2468498853
-2.141475846 -2.524782826 1.807986658
-6.707786466 -5.93168006 1.631641818
3.700738558 3.651175451 0.6973798959
9.466737133 9.135293511 7.268028009
-3.292924475 -3.098541308 1.008472575
1.312715292 14.06000191 11.69684171
-2.131137116 -0.2684881807 0.8078743592
-3.483013319 -5.097721972 0.09581450203
2.279400493 7.361612966 4.662036156
-7.346577929 -8.522683081 2.582102025
-1.297219657 -4.433236625 0.2114789211
-5.26973958 -5.700840235 2.483805017
-3.261964562 -2.495896518 1.808270345
-0.0898596445 14.5645947 4.005870672
1.587631013 4.379908883 4.093011265
-11.50955515 -10.73600153 1.621095237
1.522833794 2.204023382 0.06867073715
3.968169765 6.474990932 3.801276415
-2.130561628 -5.879517947 0.5153622046
3.821383628 5.090404969 3.213576681
-2.988349097 -1.918100321 -0.4651556267
-12.10032794 -11.74900476 0.1325262208
-3.532541074 -1.798608991 -0.03328463772
-1.701585075 -4.887554828 -0.2665572184
3.53925323 5.617810661 3.140460731
-4.800178401 -5.70938897 2.578759214
9.067144043 6.082334329 5.991929188
2.91062689 3.663273021 -0.2906194387
-5.064906924 -13.69618173 1.991164832
-2.131737797 -2.30805282 -0.0490827607
5.42332919 9.648507247 6.620954974
-4.574973103 -2.728602463 1.597693698
-4.373444277 -15.72013185 1.608869453
-5.295828268 -18.56851512 1.498431736
-5.586464898 -5.506472047 1.616666876
-6.59539516 -8.650062197 1.156960661
8.818480488 11.07321887 0.8719536524
2.704935659 3.310220912 1.132684838
-1.452323845 -5.102406212 1.208056489
-3.454765683 -9.758884804 -0.4658964711
-8.280228448 -9.714071564 3.59654825
12.04130169 10.91163768 8.342699516
-6.011689861 -7.914254982 2.288543601
-11.30144759 -10.50706683 0.6173576678
-1.25000221 -2.908793084 -0.5214517548
13.98354784 11.64481053 -1.326251285
-5.585884423 -17.92717408 1.498624752
-5.941023753 -17.11207667 1.808624684
-3.821398784 -5.499247895 0.4520695978
2.656965561 12.23435374 4.00741413
-2.049077843 -4.301200925 0.8075838649
-2.029699092 -6.251957659 1.038060129
-9.915102519 -10.29192831 1.385018727
-2.166931544 -7.709029292 -0.2832071429
-0.6035797809 -3.713693185 -0.4898789624
-5.128998848 -4.305363482 1.024533085
-5.003280677 -17.25274419 0.8626187863
-11.07996624 -14.30706394 0.4291927213
5.139785421 8.227526314 4.473020184
4.029079022 6.647359779 3.789119447
9.676791774 12.57315758 9.181423331
-8.746080882 -10.26780407 2.604586552
-4.627626608 -11.10750252 2.666421259
-6.455720589 -10.29289998 1.521779328
5.234694141 8.314775376 5.618402128
-2.599928736 -10.50020865 2.284942023
-5.607050444 -6.512994836 2.784607792
1.551344903 6.474159515 2.848774424
10.43787237 13.91589913 1.985706623
1.932464828 6.698062234 0.6948262861
-3.896800197 -15.29009481 2.167272573
-3.601694069 -1.913205935 1.006180798
8.040751679 12.47544541 8.318246522
-0.6473915934 -2.671516452 2.008507277
-4.747421547 -8.908197482 0.1470268333
3.037373069 3.671806988 -0.1081566533
-2.758828536 -1.865170689 0.9878556287
2.79950667 15.25050465 7.389590351
-1.571477627 0.524347863 0.3473726371
6.042352523 14.35151107 -0.9158461908
1.345145287 3.678107029 0.1468213672
0.4153456989 -2.313467328 0.8072386138
4.960580754 7.838413139 5.169530397
1.336833528 3.428668671 2.27060612
-10.08737999 -12.48405276 1.374509925
10.5685749 12.55730453 1.168136848
-8.320673253 -9.105142564 1.738793942
2.325317867 9.19352979 7.809101332
0.1876481853 -0.5693333376 2.321455579
5.276418571 9.824306977 5.291246272
4.013220976 12.79306743 6.373251938
-6.582202537 -8.112153186 3.61306999
-5.591952404 -6.903769955 3.461095978
-2.479713486 -10.10137891 2.273161868
11.05297104 10.14012189 8.094159731
9.444592307 10.26966531 7.443714573
2.02350593 14.04939801 0.2099594462
2.29840316 1.48079437 0.1275721443
-5.667383472 -7.666070674 1.206689237
-3.115719595 -7.935614202 0.5817105339
-2.789189162 -8.587219103 0.1739656179
-4.792596751 -14.0820097 0.2843157512
4.463543946 13.90511491 7.101954431
0.3013146952 -2.119953711 2.498325119
-2.838098167 -12.45859597 2.934744764
-4.362463543 -12.70240828 0.6522982574
-7.284921565 -10.28241511 3.56976647
-2.907064204 -11.74912124 -0.7809225713
-2.761788377 -7.931494767 0.7907839902
3.68606997 7.614668424 4.388170485
12.08627622 10.4136733 0.1613055062
-5.831399205 -6.712188004 -0.2078546728
3.008035958 2.347308917 1.126535153
-2.071583485 -3.917303204 0.8201584079
8.281247525 11.26157175 -0.2367203191
1.691056478 4.272152556 2.098945462
-3.280685519 -14.14848477 2.121462655
7.073265699 11.15803485 7.035089537
-8.508298665 -11.51306232 2.928012786
2.867012223 7.168623002 2.259130146
-3.638583299 -5.714700588 1.410553169
0.4773071136 -0.5416822059 1.304429053
2.835181207 7.931294559 5.136115809
1.911268727 2.276717509 -0.4014395049
-7.056828789 -11.70631887 2.777238263
-11.57008285 -13.92777105 -0.3778844083
-4.20230815 -11.93140609 3.440510115
-4.204486465 -4.536242178 1.608202473
-7.916596526 -7.294242099 2.064731568
-3.373126604 -1.92881093 -0.191416307
-8.937046214 -10.09422336 2.31281844
5.624392969 8.928584173 5.480296658
-8.074876321 -10.91869421 2.985475284
-4.086827703 -3.306720889 2.784425753
-3.934326552 -16.11116453 2.803141315
-3.943092354 -3.323198507 2.497926589
-1.37148197 -5.306172861 2.598146733
1.170275902 5.181272272 1.005868892
3.63959374 16.47413064 9.3356601
-9.250237277 -12.1591559 2.563588059
-4.319754079 -5.340551187 0.8010435684
3.610628527 10.38794189 5.296872859
-1.886715493 -2.907472477 2.79529237
-0.7142053689 1.375577465 1.01462849
-3.080574637 -4.098762848 2.327078002
-2.140052367 -3.787681955 2.511569663
7.390512365 5.37355831 5.381316083
-1.883326593 -2.308515193 2.554712966
1.860883639 12.20099901 0.327785134
-5.395555161 -5.30394498 -0.8130693238
-2.355803632 -6.303561794 2.36077527
-6.301159931 -8.356933927 0.4627920913
-2.397189815 -6.703908095 3.031795801
-6.0713088 -10.30748801 1.019840237
-6.882300254 -6.143753229 1.616027934
-3.368083685 -4.32503302 0.8111416742
-1.750370114 -7.144677139 0.9699636335
-3.949456903 -5.701041772 -0.009459879144
7.250787935 8.590643338 -0.156559964
-1.238529299 1.023007894 0.8009195462
11.24639271 15.3717352 3.499262587
1.890732613 4.125422692 2.372210989
-2.124287708 -6.557319741 0.6169213745
-5.374878395 -6.102669833 3.306737839
-7.187295298 -7.916915073 0.221697493
-1.752724626 -0.530564382 -0.2441977461
-5.378479847 -7.70653544 2.373639781
4.408712156 10.2652061 3.019503635
-2.007717814 -8.917199604 3.14936848
-10.68419958 -10.14705753 2.186304455
-7.388249956 -8.098140726 -0.1562813355
-2.050132205 -5.337135795 0.6013610623
-1.999166364 -0.4920348 1.611694262
-5.588305958 -8.095565734 0.4306343965
6.509560428 7.48923512 5.338028723
6.46122901 11.1208698 8.460867949
5.872342962 11.16299606 5.939455351
2.619155404 5.724840964 3.290935902
-5.017118159 -9.528597226 1.812013923
-3.842287728 -8.70695783 0.01411318733
-7.966326862 -7.445622862 0.4321664661
8.70626265 13.05119138 8.62891532
-6.77405914 -10.77483089 2.418605875
-2.093269181 -8.316978026 -0.8609801032
-4.399281107 -13.31500313 2.214138367
4.888446532 7.542958198 4.906628783
-4.74571269 -13.31979497 3.510494737
1.998320945 7.002088448 4.08125654
2.281293533 15.49564456 -0.5337853999
-4.876475677 -5.895197087 1.209639852
0.8365170238 2.905146693 1.926994833
3.397559335 4.922902332 1.62457047
-7.242773848 -11.8563914 1.96967297
1.191332302 4.788034521 0.7703631284
5.753160765 11.77052689 0.1111280872
3.504842706 7.85891673 -0.3526790411
12.58227979 15.41272916 1.011115661
3.707737469 5.736674997 -0.313072656
0.9133779377 5.865078403 2.479215292
-10.97112221 -15.05511232 -0.08012824006
5.937978739 10.02921318 6.251941546
4.817384114 5.568269352 3.653310448
-4.398476571 -15.91307667 0.6909821512
-1.384150007 -1.907429109 2.645996995
-3.351804905 -6.164275296 1.129862473
8.887766484 12.91406418 7.899754303
3.551985697 7.162754893 0.5603614448
2.165899797 13.68534374 -0.3273029485
-4.04248766 -10.31518395 0.5835553919
-2.953575931 -6.310365849 2.967623372
-6.832339302 -9.703684302 2.854449147
-6.554540537 -4.896841003 2.397366141
3.25657714 6.58567707 0.3971053234
-5.317850667 -13.40514564 2.947517333
-4.757641774 -11.92661574 2.25226747
-4.168268246 -13.85356165 3.131767036
3.308397644 5.863272532 0.3625104626
2.846085974 4.727484349 2.594728984
0.5823503893 2.789135585 -0.1341081246
5.1068415 6.435489286 2.820389015
-5.607951903 -10.67873068 0.996204444
4.660735195 14.13431408 2.737754179
-8.884472855 -10.90422863 -0.9549532068
-10.75973162 -10.51550414 1.952883744
-3.818613349 -15.08950165 2.16520007
-3.991243654 -2.510341515 2.121571824
-2.890960949 -8.260552457 2.73099327
-7.170132651 -10.7385248 0.03261645128
13.56152759 11.60227284 9.28327754
-9.475490312 -12.05847342 2.646539753
2.51966254 9.675342478 8.724948598
-6.299666392 -8.707914407 1.984393517
-9.988869037 -11.50537285 0.5281692913
-1.700993822 0.194648676 -0.4014471929
-9.378063912 -13.51661174 0.9858334817
-5.193357288 -3.709391707 -0.2649893074
12.53460578 15.31012865 -0.107388802
3.317750712 3.496774537 0.1538608655
-9.546457483 -9.510111658 1.844564959
-2.508967453 -8.153003486 -0.8111076408
-5.581764172 -5.908220977 0.1616316737
-7.106456646 -10.11498046 2.563577302
-0.5981583657 -1.115100111 2.414893262
-1.617134586 -0.06891725882 2.013657914
-4.766105109 -15.90388503 2.272015431
-2.845540029 -9.130367945 2.115489998
11.88998086 10.44166219 0.3855599229
-9.465184051 -10.88057436 -0.3909938224
5.762171552 5.056975951 -0.5066740859
